# .PCD v0.7 - Point Cloud Data file format
VERSION 0.7
FIELDS x y z normal_x normal_y normal_z curvature
SIZE 4 4 4 4 4 4 4
TYPE F F F F F F F
COUNT 1 1 1 1 1 1 1
WIDTH 583
HEIGHT 1
VIEWPOINT 0 0 0 1 0 0 0
POINTS 583
DATA ascii
0.010446586 -1.1332401 -0.74569488 -0.076993249 0.28937921 0.95411307 0.024813829
0.021216296 -1.1288152 -0.74468708 -0.084692344 0.26214197 0.9613058 0.022038721
0.13660291 -1.1253092 -0.74292809 0.25761271 0.35488442 0.89871728 0.057566468
0.15522002 -1.1247436 -0.75031906 0.33881059 0.31837809 0.88534898 0.044766288
0.17366998 -1.1254759 -0.75817961 0.40644735 0.24902256 0.87908381 0.044789769
0.1916538 -1.1275203 -0.76504517 0.46533766 0.20330217 0.86146915 0.055714488
0.21217667 -1.1308951 -0.76867723 0.52699119 0.20102043 0.82575488 0.10201924
0.23541366 -1.1277682 -0.77609968 0.71565068 0.22293444 0.66192472 0.18140481
0.48801422 -1.1322246 -0.77256745 0.86839032 0.4261317 -0.25359416 0.077638991
0.49275082 -1.136131 -0.76389092 0.88259149 0.40235311 -0.24319591 0.074479967
0.4947384 -1.1367137 -0.75705171 0.89658666 0.36235803 -0.2546154 0.074328698
-0.29150271 -1.1014488 -0.75517267 -0.60764813 0.28242934 0.74229199 0.012913432
-0.28556359 -1.1014572 -0.75017411 -0.5978452 0.26667005 0.75595516 0.013762329
-0.012439871 -1.1118708 -0.75012726 0.012622292 0.1133862 0.99347079 0.019670315
0.031984944 -1.1116825 -0.74549663 -0.08077655 0.1602394 0.98376751 0.019429313
0.13657336 -1.111048 -0.74776918 0.24636385 0.23460925 0.9403528 0.039004806
0.15157558 -1.107723 -0.75252342 0.3001442 0.17831662 0.93707877 0.032850988
0.1729504 -1.1074953 -0.76000535 0.37188256 0.12595944 0.9196943 0.037446883
0.18953671 -1.1101247 -0.76561338 0.41800779 0.080412321 0.90487754 0.04602883
0.20890285 -1.1097471 -0.7666471 0.38027409 0.015191128 0.92474908 0.10370082
0.22691892 -1.1105758 -0.76325071 -0.055838753 -0.160521 0.9854517 0.16471806
0.42272249 -1.0876952 -0.76243484 -0.37032449 -0.92871076 0.018871224 0.051978562
0.48668292 -1.1239829 -0.76439667 0.83305269 0.48612472 -0.26401895 0.072391368
-0.2998738 -1.0897114 -0.77313775 0.72033197 -0.16601379 -0.67346954 0.011779019
-0.29448181 -1.0915506 -0.76408899 0.67924374 -0.22396146 -0.69890571 0.0082790274
-0.0051948726 -1.0978971 -0.74970996 0.009138193 0.022198349 0.99971181 0.017610461
0.05256255 -1.0929837 -0.74323821 -0.05456233 0.06048708 0.99667662 0.017199505
0.15611079 -1.0894703 -0.75468951 0.28470841 0.045921523 0.95751363 0.023105247
0.17359656 -1.090096 -0.75967723 0.33601665 0.018584266 0.94167268 0.025778733
0.19272688 -1.0904685 -0.76480889 0.27002707 -0.020785652 0.96262836 0.059096996
0.20853978 -1.0891638 -0.76719815 0.025822768 -0.09189184 0.99543411 0.10055225
0.22603886 -1.0890867 -0.7633552 -0.11727801 -0.032563832 0.9925651 0.1242957
0.34875467 -1.0675201 -0.76854247 -0.31838521 -0.84906906 -0.42155975 0.049468074
0.41576919 -1.0856837 -0.7695353 -0.37392467 -0.92685115 -0.033574462 0.044609275
0.42939153 -1.0908589 -0.76997739 -0.44492039 -0.89419031 0.049694274 0.049059805
-0.30006731 -1.0714074 -0.78358978 0.74333751 -0.10580251 -0.66049612 0.025535349
0.15718439 -1.0717757 -0.75414294 0.26579353 -0.048112009 0.96282864 0.015789583
0.17051004 -1.0691839 -0.75740755 0.29078883 -0.074236773 0.9539029 0.014962892
0.19346076 -1.0718031 -0.76505578 0.19916692 -0.11516663 0.97317481 0.032050937
0.20780532 -1.0730898 -0.76649499 0.032874718 -0.095337763 0.99490201 0.072155863
0.22824465 -1.0683223 -0.7641049 -0.067666695 0.014914177 0.9975965 0.088878877
0.31626526 -1.0526264 -0.76820648 -0.18560959 -0.84199566 -0.50654948 0.052119147
0.33390138 -1.0662823 -0.76065165 -0.32651266 -0.80646056 -0.49296132 0.050829906
0.36342227 -1.0710675 -0.76982993 -0.2848587 -0.89536989 -0.34229851 0.030031774
0.38594994 -1.0800228 -0.76786458 -0.19401838 -0.95742106 -0.2137797 0.043898657
0.42682636 -1.0891895 -0.76494771 -0.396137 -0.91729242 0.040621419 0.051702835
-0.29855865 -1.0581646 -0.78624302 0.7286216 -0.13275976 -0.67192662 0.023039702
-0.29094717 -1.0516262 -0.77720594 0.72460091 -0.16298075 -0.66961992 0.0090747867
0.15941352 -1.0582563 -0.75301731 0.25536188 -0.11432926 0.96006203 0.011145771
0.16985054 -1.0521601 -0.75446546 0.2682628 -0.13304192 0.95411474 0.0076374561
0.1882021 -1.0497458 -0.75900191 0.26166111 -0.15100244 0.95327419 0.008569194
0.21170408 -1.048768 -0.76315916 0.098997906 -0.12896927 0.98669463 0.039229885
0.23226418 -1.0478688 -0.76527327 0.037497949 0.08799392 0.99541497 0.081036016
0.30902523 -1.0516299 -0.76677489 -0.20176497 -0.80590802 -0.55659962 0.059442431
0.33087984 -1.0549464 -0.7737211 -0.37848601 -0.80907744 -0.44960207 0.018047448
0.34511507 -1.0632917 -0.7707423 -0.33023503 -0.84888154 -0.41272861 0.024986235
-0.29397854 -1.0336226 -0.78880817 0.7172699 -0.1418204 -0.68221033 0.01266115
-0.28338385 -1.0303857 -0.77604449 0.72340024 -0.14979753 -0.6739828 0.0052255946
0.18845722 -1.0324751 -0.75650805 0.26061347 -0.16267848 0.95163876 0.0074986652
0.20828597 -1.0330851 -0.76092845 0.12271414 -0.16057116 0.97936618 0.021405445
0.2297888 -1.0316586 -0.76254505 0.12277372 -0.041274823 0.99157602 0.046756279
0.29409349 -1.040701 -0.7754913 -0.27541804 -0.60257488 -0.74903166 0.10598267
0.30691603 -1.0431669 -0.77931857 -0.24684116 -0.80138701 -0.54483789 0.062285837
-0.29286709 -1.0137545 -0.79208577 0.71204364 -0.10506172 -0.69423044 0.012133698
-0.26412597 -1.0087993 -0.75715506 -0.70789939 0.110245 0.69765645 0.0074071558
-0.25496006 -0.99744254 -0.74611163 -0.70116413 0.07421197 0.70912725 0.0099328905
0.1977286 -1.0154618 -0.75537747 0.28509811 -0.16738467 0.94376981 0.0099983374
0.20975503 -1.0082893 -0.75815886 0.19859646 -0.13981566 0.97005725 0.020774219
0.22615084 -1.0069784 -0.76144344 0.21157496 -0.061387923 0.97543198 0.027148448
-0.26227772 -0.98711932 -0.75748432 0.72367609 -0.065256909 -0.6870476 0.0056283786
-0.25493279 -0.97825599 -0.74737275 -0.71138829 0.054122295 0.70071208 0.0082884049
0.19178303 -0.99298304 -0.74876803 0.38569584 -0.20646177 0.89922869 0.016215529
0.21608557 -0.99377608 -0.75798601 0.23916252 -0.10534246 0.96524829 0.023808675
0.23070222 -0.9941442 -0.76252657 0.27785251 -0.021541119 0.96038222 0.028072512
0.44632947 -0.97918314 -0.77249765 0.95143509 -0.30671927 -0.026354656 0.00033598804
-0.2936666 -0.97390795 -0.79652667 -0.69201785 0.040118005 0.72076476 0.0063508498
-0.26173276 -0.96723342 -0.75725096 0.72934455 -0.046996672 -0.68253046 0.0050827665
0.20004299 -0.97802013 -0.74832129 0.43033943 -0.18905835 0.88264656 0.018018747
0.22086044 -0.97263193 -0.75682271 0.37156707 -0.10317305 0.92265552 0.020539576
0.22859092 -0.97638804 -0.7598381 0.2952781 -0.069038033 0.95291376 0.023617821
0.4502205 -0.96746469 -0.77148199 0.95558625 -0.29419827 -0.017386232 0.00045401193
0.44794104 -0.97477901 -0.76129258 0.95270848 -0.3026 -0.027924312 0.00052543497
0.45109504 -0.96452928 -0.77381241 0.95661288 -0.29097959 -0.01492133 0.0004741094
-0.29077244 -0.95390159 -0.79278231 -0.69493455 0.029066471 0.7184853 0.0049704732
-0.27657712 -0.95174146 -0.77764791 0.72332293 -0.03514228 -0.68961507 0.003329291
-0.2607927 -0.94830859 -0.75720328 0.72608435 -0.046943538 -0.6860013 0.0047707339
-0.25262988 -0.94605219 -0.74513978 -0.71033448 0.053412672 0.70183474 0.0077916859
0.21782152 -0.95208186 -0.75241435 0.46832457 -0.13091624 0.87380379 0.018129747
0.23016204 -0.95260704 -0.75906849 0.44455945 -0.080181457 0.8921535 0.014228336
0.45636895 -0.94607627 -0.7702508 0.9710741 -0.23877496 -0.0012588652 0.0004906088
0.45712093 -0.9429509 -0.77708805 0.97346622 -0.2288305 -0.00028862999 0.00046395519
-0.29198357 -0.93181348 -0.79392534 -0.68534678 0.035574306 0.72734743 0.0048571946
-0.27694702 -0.94001126 -0.7782585 0.71831721 -0.036273114 -0.69476944 0.0036711216
-0.27292293 -0.92365879 -0.77474535 0.71748871 -0.04645323 -0.69501948 0.0036237487
-0.2598474 -0.92557794 -0.75792807 0.72240615 -0.053787202 -0.68937385 0.0049045989
-0.25172174 -0.92884183 -0.74553871 -0.70663935 0.060647018 0.70497 0.0086963112
0.10913406 -0.92991096 -0.68858427 0.14424434 -0.16048528 0.9764415 0.097454019
0.22432746 -0.9288404 -0.75261211 0.50835365 -0.12625588 0.8518427 0.013747132
0.23017573 -0.93584824 -0.75705034 0.47089732 -0.099338964 0.87657714 0.012201381
0.45770365 -0.94044262 -0.76896781 0.97551495 -0.21991341 0.0029492995 0.0004906088
0.45880306 -0.9345867 -0.76178056 0.98314053 -0.18276902 0.0054932251 0.00059176201
-0.28999621 -0.91432124 -0.79254502 -0.68452406 0.046418916 0.72751093 0.0043591005
-0.27415562 -0.91921991 -0.77663058 0.71510488 -0.048801266 -0.69731158 0.003758956
-0.27238628 -0.91130519 -0.77518672 0.71401143 -0.058911745 -0.69765115 0.0034643342
-0.25585121 -0.90439004 -0.7555393 -0.71605623 0.064312696 0.69507366 0.0063027125
-0.24796285 -0.90886569 -0.74388826 -0.69304723 0.07125023 0.71736246 0.010570302
0.09854316 -0.90670055 -0.68813199 0.057784393 0.01352862 0.99823743 0.081500828
0.11310369 -0.91183275 -0.68866527 0.1411586 -0.034419253 0.98938847 0.085448772
0.22283719 -0.91654748 -0.74928135 0.57692546 -0.14238381 0.80429095 0.015781118
0.23234464 -0.90792251 -0.75564218 0.56753916 -0.13447084 0.81229115 0.0096525336
-0.28072348 -0.89107078 -0.78627801 -0.69686484 0.061097279 0.71459538 0.0036349357
-0.26681164 -0.8878088 -0.77222365 0.71697879 -0.059990391 -0.69450885 0.003606342
-0.25075638 -0.88813686 -0.75096846 -0.70282412 0.066498198 0.70824873 0.009449319
0.097820252 -0.89663047 -0.6898728 0.039810199 0.0486903 0.99802023 0.072346888
0.11240956 -0.8936038 -0.69054705 0.097908631 0.047035813 0.99408329 0.07223513
0.12859477 -0.88838267 -0.69323188 0.1759506 0.034357339 0.98379922 0.063992172
0.22089942 -0.9010337 -0.74501979 0.60940295 -0.15186793 0.77818006 0.016094442
0.22854865 -0.89119983 -0.74935329 0.62323868 -0.16297126 0.764862 0.012297791
-0.26992345 -0.87670308 -0.77709842 0.71286553 -0.056933276 -0.69898593 0.0032647483
-0.26204631 -0.87108243 -0.76885349 0.71861798 -0.051991861 -0.69345874 0.0042166375
-0.24900758 -0.86998016 -0.751647 -0.69798464 0.053950548 0.71407759 0.010678189
0.21966241 -0.87184238 -0.73775482 0.61682326 -0.14542246 0.77355117 0.01644145
0.22669657 -0.87671822 -0.74499857 0.6276933 -0.16257335 0.76129562 0.012246449
0.2507537 -0.86940545 -0.76523131 0.64080834 -0.21468171 0.73707289 0.0080625908
-0.26146635 -0.85135508 -0.76977986 0.72241408 -0.033089634 -0.69066846 0.0045492738
-0.25067022 -0.85084957 -0.7553156 -0.70874476 0.02792204 0.70491219 0.0096024089
0.22766526 -0.85367936 -0.74196434 0.60301292 -0.14945513 0.78360611 0.011239043
0.24072261 -0.84757876 -0.75153804 0.61355305 -0.19008927 0.76643246 0.0096387044
0.24920766 -0.85002148 -0.75914162 0.6236673 -0.21576798 0.75132102 0.0083520301
-0.25598481 -0.82955754 -0.76142669 0.72377872 0.0017531412 -0.69002992 0.0074886037
-0.2491778 -0.83193618 -0.75233585 -0.70198435 -3.9028986e-05 0.71219242 0.012395332
0.22135922 -0.83270526 -0.7339595 0.54242653 -0.10530564 0.8334772 0.012747475
0.2478731 -0.83743638 -0.75460893 0.60473913 -0.20110378 0.77061522 0.0079683857
0.26746443 -0.83052051 -0.76917255 0.63880771 -0.26344284 0.72285724 0.0073281853
-0.26846349 -0.81253141 -0.77587384 0.74479538 -0.0029982249 -0.66728622 0.005939106
-0.25724053 -0.80890185 -0.76047295 0.73314422 0.020469539 -0.67976511 0.0076537332
-0.25176388 -0.81291074 -0.75392067 -0.70780921 -0.018583795 0.70615917 0.010895191
-0.27105126 -0.79045004 -0.77599502 0.77227288 -0.017605625 -0.6350469 0.0090408428
-0.26652482 -0.78951418 -0.76974881 0.76508504 -0.0036373991 -0.64391899 0.008568597
-0.25791851 -0.7933501 -0.75868291 0.73861343 0.017302956 -0.6739071 0.0092138397
-0.27246594 -0.76710188 -0.77647591 0.80383468 -0.049386803 -0.59279913 0.012442179
-0.27140781 -0.76816529 -0.77488536 0.80100322 -0.042647135 -0.59713906 0.011927288
-0.26359281 -0.77255017 -0.76325804 0.76611686 -0.012109676 -0.64258718 0.011180011
-0.27289554 -0.75380075 -0.77679771 0.82107359 -0.072480232 -0.56620204 0.01393487
-0.26781631 -0.74562651 -0.76786548 0.80873805 -0.058764048 -0.58522606 0.016580539
-0.26445207 -0.74838787 -0.76257861 0.78735083 -0.045583796 -0.61481768 0.016436623
0.2031866 -0.75238836 -0.72390187 0.27539727 0.0105002 0.96127313 0.0074030734
0.21032673 -0.74770057 -0.72590595 0.29466593 -0.0033538486 0.95559442 0.0070091728
-0.27250877 -0.72951466 -0.7780723 0.85727012 -0.12371849 -0.49978167 0.020389196
-0.2698631 -0.72848094 -0.77259874 0.84147799 -0.10384144 -0.5302186 0.019241724
-0.26374447 -0.72998106 -0.76050419 0.79894614 -0.068050459 -0.59754008 0.022263352
0.15794684 -0.72373992 -0.71892053 0.13874073 0.002008656 0.9903267 0.0066648689
0.23580503 -0.72507232 -0.73463494 0.36622867 -0.029143499 0.93006837 0.0057498869
0.24489495 -0.72421759 -0.73786783 0.39424741 -0.035186104 0.91833049 0.0052441526
-0.27346882 -0.71402448 -0.78245431 0.88947612 -0.16434431 -0.42640725 0.024409821
-0.26877636 -0.71073258 -0.77076679 0.86252946 -0.12600827 -0.49006617 0.026933825
-0.26333821 -0.71075451 -0.76019925 0.81520003 -0.097657934 -0.57088685 0.026100913
-0.17111957 -0.70537835 -0.71906489 -0.11673479 0.091129705 0.98897338 0.0053503816
-0.14749828 -0.69774628 -0.71975458 -0.076573886 0.098336443 0.99220282 0.0023069766
-0.12268259 -0.70000231 -0.71784616 -0.079315141 0.11109339 0.99063987 0.0018448886
0.1441029 -0.71297163 -0.71805489 0.11635342 -0.014241103 0.99310577 0.0064711412
0.17876877 -0.7128306 -0.72074741 0.17560385 -0.036369026 0.98378891 0.0083649801
0.21181172 -0.71029365 -0.72730207 0.27861676 -0.03404548 0.95979875 0.0074354177
0.23768005 -0.70747173 -0.73559064 0.36066565 -0.019605653 0.9324891 0.0060638655
0.2428192 -0.70778209 -0.73737901 0.3742817 -0.018338028 0.92713374 0.0055744573
-0.26784405 -0.68921769 -0.77231151 0.89054865 -0.15899341 -0.42619735 0.035927068
-0.263684 -0.68734562 -0.76392257 0.85708469 -0.13755122 -0.49647307 0.031507771
-0.16369613 -0.69470769 -0.72015107 -0.095970027 0.08859998 0.9914332 0.0039914614
-0.14457972 -0.68549925 -0.72079259 -0.06946034 0.088501506 0.99365121 0.0021605599
-0.12815498 -0.68645263 -0.71965003 -0.072284609 0.097511455 0.99260587 0.0018449667
-0.11257384 -0.69178426 -0.7177673 -0.083245106 0.10799921 0.99065959 0.001958994
-0.092449374 -0.68454951 -0.71590805 -0.089292519 0.11141901 0.98975384 0.0016905614
0.042166334 -0.69282949 -0.7091853 0.05601348 0.12051538 0.99112993 0.0022964699
0.17716072 -0.70132244 -0.71990126 0.16981208 -0.059690431 0.98366708 0.0086782016
0.21555206 -0.69485742 -0.72780997 0.30050418 -0.049734216 0.95248294 0.0070579615
0.23662694 -0.69296169 -0.73472679 0.36391738 -0.034616362 0.93078774 0.0059704687
-0.26503667 -0.67043036 -0.76976925 0.90116566 -0.15685506 -0.40410009 0.038156494
-0.26157609 -0.66812199 -0.76193839 0.87125742 -0.14582236 -0.46866438 0.04090571
-0.13897054 -0.67106813 -0.72145432 -0.061613869 0.078325488 0.99502206 0.0018129335
-0.13057138 -0.66950601 -0.72118783 -0.063548945 0.082105711 0.99459547 0.0018640361
-0.080790192 -0.65778923 -0.7171964 -0.076352544 0.10415937 0.99162549 0.0017257956
0.05162666 -0.65958214 -0.71574563 0.0066355942 0.082928173 0.99653345 0.0042680921
-0.26329759 -0.64765412 -0.77307755 0.92762256 -0.1639002 -0.33563837 0.043917362
-0.26382717 -0.65433747 -0.77091789 0.92051661 -0.16014275 -0.35637549 0.042261012
-0.26215979 -0.64605522 -0.7704463 0.91733879 -0.16073562 -0.36421645 0.042125709
-0.13624565 -0.64059407 -0.72262198 -0.049961317 0.057709813 0.99708247 0.0017751417
-0.089435264 -0.64305109 -0.71969295 -0.066504113 0.092007369 0.99353504 0.0019794239
-0.077511415 -0.64008296 -0.71892875 -0.066775225 0.098879889 0.99285638 0.0017458864
0.04618613 -0.645971 -0.71741897 -0.0062174462 0.069144584 0.99758726 0.0045880205
0.058894392 -0.64902657 -0.71737766 -0.019601254 0.053252134 0.99838871 0.0057444358
-0.26134494 -0.63296157 -0.77329439 0.9346298 -0.16124095 -0.31696767 0.045497425
-0.25991923 -0.63404012 -0.76836073 0.9130013 -0.15377681 -0.37786412 0.046513729
-0.26104307 -0.6317302 -0.77267897 0.93397504 -0.15870988 -0.32015908 0.045858577
-0.14661159 -0.62649632 -0.7233153 -0.050988287 0.044133861 0.99772358 0.0022784933
-0.12860595 -0.63086736 -0.72307152 -0.041219778 0.056309856 0.99756211 0.0019535371
-0.10791239 -0.63010263 -0.72240019 -0.047743548 0.071292825 0.99631214 0.0020534999
-0.089398399 -0.62624282 -0.72142047 -0.053965531 0.081732795 0.99519217 0.0021300924
-0.078137375 -0.6229524 -0.72112787 -0.055015378 0.087017342 0.99468654 0.0019855902
-0.0055295075 -0.62078536 -0.71806496 -0.021631286 0.074850656 0.9969601 0.0041945386
0.0071568764 -0.62315488 -0.718068 -0.01164111 0.068426467 0.99758822 0.0044309786
0.02632343 -0.62549669 -0.7185235 -0.0086606536 0.050931178 0.99866462 0.0049275192
0.040688995 -0.62930417 -0.71886313 -0.025738582 0.044236574 0.99868947 0.0049223145
0.051142916 -0.63371646 -0.71879095 -0.03265189 0.039006922 0.99870533 0.0054922388
-0.25825647 -0.61254907 -0.77329642 0.93636876 -0.14020421 -0.32180166 0.053698611
-0.2570307 -0.61352372 -0.76924986 0.92458326 -0.14122893 -0.35383636 0.056269675
-0.25573656 -0.60963267 -0.76802337 0.92665595 -0.13626173 -0.35034475 0.0554366
-0.24803586 -0.60449725 -0.75480169 0.86426771 -0.12138204 -0.48816776 0.05614939
-0.22473821 -0.60280389 -0.7344982 -0.58522737 0.074712768 0.80741996 0.038348213
-0.1676387 -0.6099354 -0.72353375 -0.10798558 0.03255507 0.99361926 0.0088190017
-0.14720701 -0.60880828 -0.72392744 -0.047861993 0.029318983 0.99842358 0.003151315
-0.12483932 -0.61403787 -0.7237922 -0.033290375 0.044409465 0.99845856 0.0021439078
-0.10774347 -0.61032724 -0.72381526 -0.033085022 0.054933991 0.99794167 0.0022665227
-0.088964917 -0.60849267 -0.72334915 -0.03910619 0.066040903 0.99705029 0.0024121706
-0.069565214 -0.60611165 -0.72254294 -0.047864065 0.074277602 0.99608827 0.0024410971
-0.050887503 -0.6048857 -0.72142363 -0.051397823 0.077518925 0.99566513 0.0027803176
-0.027606044 -0.60401183 -0.72018427 -0.047618337 0.066135101 0.99667376 0.004053663
-0.011037802 -0.60757828 -0.71937561 -0.035953283 0.057580933 0.99769324 0.0045180609
0.006009955 -0.61212057 -0.71893966 -0.023853537 0.048538838 0.99853641 0.0048421328
0.021809004 -0.61458498 -0.71907735 -0.020944286 0.034306142 0.99919188 0.0053414102
0.035258967 -0.61597991 -0.71938318 -0.02957237 0.020740516 0.99934745 0.0057026413
-0.2533845 -0.59026694 -0.76951772 0.93783915 -0.10778967 -0.32990775 0.060867377
-0.25074601 -0.58989996 -0.76370811 0.91332877 -0.10442758 -0.39360568 0.060149409
-0.24682814 -0.58701086 -0.75700372 0.87070435 -0.098974101 -0.48174477 0.057015169
-0.21753721 -0.58630162 -0.73259431 -0.52049488 0.053855464 0.85216469 0.033801582
-0.16591702 -0.59078115 -0.72358453 -0.11063351 0.013305802 0.99377221 0.011112919
-0.15096273 -0.588471 -0.72392905 -0.053995803 0.010264063 0.99848843 0.0051248958
-0.12944582 -0.59660554 -0.72439837 -0.021875879 0.024483658 0.99946088 0.0024093955
-0.10559044 -0.59088564 -0.72499692 -0.018687734 0.032709718 0.99929017 0.0025431062
-0.088150844 -0.58907253 -0.72504121 -0.027098708 0.043705065 0.9986769 0.002549256
-0.069788918 -0.58707315 -0.72456646 -0.040686727 0.047398511 0.99804705 0.0027682749
-0.049301438 -0.58816272 -0.72309738 -0.053923603 0.051898357 0.99719548 0.0033054519
-0.032043852 -0.58994764 -0.72169518 -0.057979003 0.045414444 0.99728429 0.0040478404
-0.0157298 -0.59718478 -0.72029251 -0.047425427 0.043637849 0.99792111 0.0045886924
-0.25124505 -0.5712378 -0.76966608 0.93625504 -0.076868787 -0.3428086 0.064608172
-0.24947351 -0.5704211 -0.76567125 0.91823864 -0.074313641 -0.38899273 0.063080087
-0.24290594 -0.57001287 -0.75462556 0.86320162 -0.071039438 -0.49983639 0.059990674
-0.21373527 -0.57696825 -0.73112917 -0.48408312 0.040615324 0.87407893 0.031570204
-0.15190858 -0.57373434 -0.72349936 -0.054462265 -0.0056142719 0.99850005 0.0062232176
-0.087016597 -0.57349491 -0.72593927 -0.019968834 0.019690091 0.99960667 0.0027603747
-0.068592466 -0.5713532 -0.72559726 -0.03731798 0.023095697 0.99903649 0.0029494411
-0.050036006 -0.57356954 -0.72430295 -0.057145175 0.026565993 0.99801236 0.0031367517
-0.034959987 -0.5790484 -0.72268552 -0.064133123 0.029124081 0.99751627 0.003937684
-0.24946518 -0.54904675 -0.76914287 0.93573546 -0.042928167 -0.35008043 0.059197173
-0.24819434 -0.54968637 -0.76599699 0.92377657 -0.041007429 -0.38072985 0.055598184
-0.24396393 -0.55142361 -0.75730312 0.88239813 -0.047842961 -0.4680647 0.052683063
-0.083656572 -0.55981535 -0.72624213 -0.017766153 6.5980676e-05 0.99984217 0.0028217884
-0.069039635 -0.55415374 -0.72606879 -0.033934448 -0.0057857321 0.99940729 0.0029720836
-0.053382736 -0.55752498 -0.72514206 -0.055830024 0.00032323683 0.99844021 0.0030711801
-0.24962986 -0.52850389 -0.77150106 0.95079231 -0.0022338105 -0.30982086 0.04957312
-0.24721499 -0.531205 -0.76584905 0.93050247 -0.0073495372 -0.36621186 0.045135193
-0.24165314 -0.53842956 -0.75496829 0.85921818 -0.02222326 -0.5111264 0.049661376
-0.066102616 -0.53577107 -0.72550869 -0.037252847 -0.03212605 0.99878931 0.0028161034
-0.055006403 -0.52991045 -0.72472572 -0.056547966 -0.036677886 0.99772596 0.0028833942
-0.25134122 -0.50935894 -0.77625549 0.95662618 0.030488418 -0.28971851 0.040299784
-0.24769615 -0.50950921 -0.76575899 0.91607696 0.01952468 -0.40052694 0.039725799
-0.24327025 -0.50212032 -0.75728363 0.85508519 0.0084907245 -0.51841795 0.03622565
-0.063053161 -0.5104391 -0.72339404 -0.037992205 -0.044620104 0.99828136 0.003072602
-0.051753316 -0.51304477 -0.7231465 -0.058237832 -0.042148631 0.99741256 0.0031092856
0.22997148 -0.51218247 -0.73098356 0.46482715 0.060724456 0.88331664 0.0043983879
0.24565023 -0.50919843 -0.74092555 0.44615161 0.091264687 0.89029181 0.003255198
0.27313763 -0.50873995 -0.75443459 0.34448287 0.13834758 0.92854267 0.002694872
-0.25303382 -0.49453497 -0.78085083 0.96548986 0.023780722 -0.25935274 0.030757463
-0.24933194 -0.48980361 -0.76921356 0.92342305 0.013665132 -0.3835403 0.034550298
-0.23916067 -0.48668677 -0.7515012 -0.79804862 0.0030496244 0.60258538 0.034444865
-0.062924042 -0.48700184 -0.72009832 -0.032044712 -0.014606213 0.99937969 0.0087658633
-0.054801051 -0.48781914 -0.71985394 -0.047172174 -0.010760692 0.99882883 0.0091949319
0.23311353 -0.49581209 -0.73351961 0.4790023 0.077512063 0.87438476 0.0042317798
0.24135596 -0.48545191 -0.73948359 0.4861902 0.10291053 0.86777216 0.0046841935
0.25359944 -0.49111339 -0.74660099 0.4430325 0.12169284 0.88820779 0.004106049
0.27076086 -0.49136049 -0.75499433 0.36358264 0.14807189 0.91971862 0.0047018738
0.29233655 -0.48160017 -0.76368576 0.23207752 0.16682589 0.9582845 0.0060476465
-0.25318834 -0.4711161 -0.77672964 0.94128633 0.00039845757 -0.33760908 0.033763457
-0.25238949 -0.46494329 -0.77367705 0.92537612 -0.025083346 -0.37821937 0.038588651
-0.25038722 -0.4701272 -0.77000624 0.91237789 -0.016578872 -0.40901312 0.032239407
-0.23953512 -0.47064209 -0.75119114 0.78725594 -0.040128794 -0.61531925 0.038293425
-0.22564298 -0.46180511 -0.73713088 -0.63315976 0.078166552 0.77006406 0.042530853
-0.20665866 -0.45600498 -0.72655427 -0.44338119 0.10900394 0.88968045 0.041036878
-0.069626994 -0.46844023 -0.71783054 -0.022987491 0.036723293 0.99906105 0.021292908
0.24045707 -0.46883577 -0.74009126 0.50384861 0.13718231 0.85282916 0.007564412
0.26868021 -0.47804707 -0.75558919 0.38770229 0.16009016 0.90777642 0.0068972609
0.29266578 -0.46870068 -0.76601231 0.2588824 0.14438094 0.95505708 0.0081510264
0.3058379 -0.46710035 -0.76889408 0.17670466 0.11362604 0.97768325 0.010351435
-0.25634089 -0.44089344 -0.78111565 0.92998493 -0.12265193 -0.34653217 0.054250367
-0.25331962 -0.44229838 -0.77221864 0.90332139 -0.12059376 -0.41166452 0.059628483
-0.25280282 -0.45638201 -0.77496117 0.92024916 -0.060392234 -0.3866449 0.038353395
-0.24196604 -0.44094995 -0.75496596 0.78811771 -0.14610209 -0.59793359 0.053874776
-0.22403538 -0.43096462 -0.73740506 -0.5843941 0.25112349 0.77163494 0.070764951
-0.20527373 -0.43014118 -0.72694534 -0.39976555 0.2917583 0.86894453 0.068395376
-0.17813225 -0.42326006 -0.72286004 -0.19046172 0.38674101 0.90230578 0.058647435
-0.15830949 -0.42344862 -0.72170919 -0.096561432 0.4011814 0.91089481 0.049433537
-0.059290424 -0.43209788 -0.71635675 -0.031774882 0.327288 0.94439024 0.055443451
-0.0477391 -0.42404893 -0.71760339 -0.04124099 0.39434266 0.91803759 0.065338619
-0.040964734 -0.41422254 -0.72215402 -0.046671875 0.51093304 0.8583526 0.073225319
-0.021107033 -0.41270313 -0.72245365 -0.075764306 0.5274778 0.84618378 0.072453402
-0.0093410974 -0.41234171 -0.72230583 -0.10197676 0.53283811 0.84005022 0.071362376
0.0039112191 -0.4236224 -0.71601844 -0.12807499 0.40471029 0.90543163 0.059012868
0.20781562 -0.42752612 -0.72427058 0.46781614 0.28688407 0.83596987 0.017144449
0.23132145 -0.43648383 -0.73832679 0.53089923 0.25871697 0.8069768 0.016065525
0.23957655 -0.44391078 -0.74278337 0.52780098 0.22561753 0.81885463 0.013134715
0.27677408 -0.44172695 -0.76532143 0.38354069 0.2892043 0.87707323 0.019699831
0.28901702 -0.44990301 -0.76744711 0.29727638 0.22576809 0.92771524 0.017410496
-0.25287428 -0.42212006 -0.77341437 0.87283218 -0.23778112 -0.42617381 0.073634647
-0.25289783 -0.43427765 -0.77123183 0.8848747 -0.1777164 -0.43059686 0.066268101
-0.25231558 -0.42403045 -0.77030838 0.86978388 -0.2194858 -0.44192985 0.078308053
-0.23356743 -0.41954303 -0.74678659 -0.65423608 0.3343268 0.67838097 0.083422706
-0.22831781 -0.41907808 -0.74253201 -0.59427851 0.354545 0.72189397 0.080599979
-0.19696182 -0.40286586 -0.73556519 -0.2801387 0.5619415 0.77829564 0.077271983
-0.17709956 -0.40119302 -0.73439294 -0.14396261 0.61073631 0.77863723 0.061666004
-0.15355116 -0.40374815 -0.73209423 -0.061880637 0.6139102 0.78694665 0.050252516
-0.13532522 -0.40012467 -0.7354759 -0.031271633 0.67279059 0.73917174 0.048675686
-0.10618436 -0.39784932 -0.73702198 -0.034904089 0.69553107 0.71764773 0.053947028
-0.081398778 -0.39888668 -0.73381931 -0.024664223 0.68644249 0.72676569 0.059122093
-0.066965431 -0.39931428 -0.73327512 -0.027218258 0.6645726 0.74672782 0.062839203
-0.049997978 -0.40046382 -0.73198229 -0.031117918 0.65250194 0.75714785 0.067925572
-0.030207856 -0.398283 -0.73403746 -0.056157921 0.67304724 0.73746437 0.067977168
-0.020687183 -0.39822936 -0.73380023 -0.077670597 0.67121941 0.73717827 0.066492833
-0.0050673294 -0.39404711 -0.73750007 0.11013605 -0.70874912 -0.69681036 0.063679896
0.0074007502 -0.38993755 -0.74179119 0.13367422 -0.74346215 -0.65528256 0.052922506
0.1826371 -0.40192625 -0.71890533 0.35046753 0.46229145 0.81453001 0.027797597
0.20280537 -0.41679773 -0.72416914 0.44535214 0.35956004 0.81998664 0.02213935
0.22496328 -0.4192355 -0.73822296 0.52107304 0.36021146 0.77377683 0.022653997
0.24435428 -0.42297319 -0.75194871 0.54415518 0.37259179 0.75171173 0.024194598
0.27150458 -0.42935416 -0.76711547 0.44101354 0.3828322 0.81175524 0.023664363
0.28794715 -0.43270835 -0.7722435 0.31411189 0.36148262 0.87787473 0.022232698
-0.25319439 -0.41111642 -0.78087151 0.86212242 -0.32284254 -0.39053506 0.073452435
-0.24939862 -0.40993735 -0.7715385 0.81967181 -0.33997494 -0.46103701 0.087023616
-0.24631748 -0.409834 -0.76639402 0.7866776 -0.35560697 -0.50466031 0.088215441
-0.23355909 -0.40218404 -0.75567943 -0.62267762 0.48352551 0.61520374 0.088748731
-0.22185323 -0.39458302 -0.7524159 -0.49309987 0.58433974 0.64451498 0.08814083
-0.19671498 -0.38858026 -0.74780035 0.24914813 -0.69142056 -0.67813188 0.070720404
-0.17391029 -0.39021569 -0.74485242 0.11107337 -0.71728903 -0.68786567 0.057781566
-0.15074861 -0.38365182 -0.76153708 0.015626749 -0.83104616 -0.55598384 0.034014944
-0.1314953 -0.38915306 -0.75201869 0.0080700275 -0.79900616 -0.60126871 0.040064793
-0.11944325 -0.38932475 -0.75174528 0.014639053 -0.80585742 -0.5919286 0.042388037
-0.079985328 -0.39281976 -0.74100667 0.021002706 -0.74777085 -0.66362458 0.057311222
-0.062509865 -0.38250715 -0.76454222 0.025219178 -0.86483073 -0.50142974 0.034940321
-0.04818055 -0.38329548 -0.76051319 0.032516479 -0.85203779 -0.5224694 0.040094849
-0.02977914 -0.38592708 -0.75220644 0.056984339 -0.81076449 -0.58259225 0.051258873
-0.014042947 -0.39045301 -0.74331659 0.091542922 -0.75204039 -0.65272903 0.055467013
0.0042981324 -0.38792899 -0.74535304 0.12587921 -0.77052063 -0.6248619 0.05117552
0.014309658 -0.38756323 -0.74449545 0.14553167 -0.76706392 -0.62484676 0.04892651
0.17923863 -0.38263059 -0.72880727 0.30999526 0.61673784 0.72355884 0.036966506
0.20214404 -0.38576213 -0.73947066 0.42116868 0.59277475 0.68646562 0.036763962
0.23051775 -0.39789575 -0.75247973 0.52078003 0.5288707 0.67013729 0.035960294
0.2370677 -0.40065041 -0.75644058 0.52690399 0.51870555 0.67328799 0.033392657
0.255317 -0.4099952 -0.7664727 0.52313006 0.49792391 0.69166952 0.02923004
0.26900926 -0.41229829 -0.7750538 0.4663555 0.53271496 0.70620626 0.028198002
0.2805694 -0.42185152 -0.77562839 0.39870852 0.48823249 0.77631211 0.030202981
-0.24974507 -0.3959868 -0.786542 0.80572772 -0.44850129 -0.3868455 0.073572993
-0.24833855 -0.39386159 -0.78562331 0.78401083 -0.47818357 -0.39581245 0.076173313
-0.24546707 -0.39769697 -0.77526343 0.76067966 -0.45397556 -0.4639748 0.084416352
-0.24307102 -0.39626184 -0.77314281 0.73084575 -0.48049638 -0.48475534 0.086522222
-0.23013705 -0.39176884 -0.76178569 0.5770095 -0.57395357 -0.58106571 0.086069882
-0.21325658 -0.37974411 -0.76445228 0.37726736 -0.73140675 -0.56807876 0.075103275
-0.1958141 -0.38000163 -0.75859135 0.23110439 -0.76600677 -0.59985363 0.066591129
-0.17625017 -0.37997225 -0.76030105 0.10253088 -0.81064498 -0.57649124 0.052327871
-0.15292314 -0.38226163 -0.76391751 0.018260419 -0.84018153 -0.54199773 0.034505162
-0.1289825 -0.38414997 -0.76543254 -0.0027161916 -0.851331 -0.52462196 0.030164918
-0.11051706 -0.38397714 -0.76545542 0.013067923 -0.85809666 -0.51332182 0.030195214
-0.088715248 -0.38247964 -0.76862442 0.016701279 -0.87123835 -0.49057603 0.029827261
-0.072510213 -0.38246086 -0.76520288 0.023309346 -0.86154008 -0.50715423 0.036539312
-0.050478589 -0.38236499 -0.76267809 0.031868756 -0.86006784 -0.50918329 0.039770063
-0.027940905 -0.38036114 -0.7683689 0.050606877 -0.88033253 -0.4716498 0.038145524
-0.012330613 -0.37937108 -0.76977187 0.086614653 -0.88746881 -0.45265552 0.034537036
0.0068402961 -0.3809042 -0.75936395 0.12846549 -0.84386504 -0.52094948 0.042752195
0.026286151 -0.37739798 -0.76415992 0.16663764 -0.86367565 -0.4757061 0.030644013
0.039319649 -0.37495387 -0.76360261 0.1789016 -0.86215228 -0.47401232 0.028783454
0.065613583 -0.36530861 -0.76602149 0.18591185 -0.88435078 -0.42820609 0.019693486
0.083017416 -0.35882971 -0.76862991 0.16577472 -0.90438908 -0.39319092 0.017448213
0.18318279 -0.37136957 -0.74079525 -0.31894431 -0.70171958 -0.63707471 0.039679162
0.20332742 -0.37680051 -0.74833536 -0.40820163 -0.66970801 -0.62037295 0.040338751
0.22236726 -0.3816953 -0.75909168 -0.4621211 -0.63890171 -0.61501926 0.03966533
0.23281787 -0.38669929 -0.76363075 -0.48495498 -0.60844123 -0.62818629 0.039434969
0.2471946 -0.39378363 -0.7704649 0.48479974 0.59256387 0.64330184 0.037007321
0.25808853 -0.39994887 -0.77506948 0.47756663 0.57658207 0.66293532 0.033629645
-0.23960622 -0.38742369 -0.77812093 0.69136131 -0.5572058 -0.45993617 0.082551032
-0.23286852 -0.38351482 -0.7750544 0.5936228 -0.6362685 -0.49272135 0.080289774
-0.2273532 -0.38012099 -0.77505559 0.53723556 -0.68086571 -0.49779496 0.076741628
-0.2113075 -0.37594637 -0.76959354 0.35010847 -0.77058285 -0.53256565 0.072439477
-0.19351801 -0.37338829 -0.7705332 0.19856615 -0.82611954 -0.52734995 0.05776418
-0.16703683 -0.37555364 -0.77602541 0.044935141 -0.87038791 -0.4903118 0.03388124
-0.15069054 -0.37784588 -0.77877563 -0.00021214514 -0.88053375 -0.47398341 0.021942649
-0.12893997 -0.38216642 -0.77236813 -0.0056188051 -0.87451601 -0.4849641 0.02282026
-0.10695186 -0.38063395 -0.77587634 0.0066400534 -0.88442999 -0.46662563 0.019595714
-0.091225125 -0.38217479 -0.76874524 0.017214924 -0.86967486 -0.4933247 0.03198744
-0.070614189 -0.38000137 -0.77403641 0.017706648 -0.88676083 -0.46188927 0.028603438
-0.046091337 -0.37962487 -0.77203023 0.029853931 -0.88734686 -0.46013507 0.03453584
-0.031825174 -0.37988675 -0.76962698 0.047958355 -0.88364035 -0.46570346 0.036016434
-0.00374017 -0.37916374 -0.76860899 0.10291664 -0.88382137 -0.4563638 0.034696031
0.0083173849 -0.37806073 -0.7700603 0.1295035 -0.88076222 -0.45550719 0.03297076
0.026842577 -0.37494335 -0.77094799 0.16538621 -0.88019937 -0.44485557 0.030265782
0.056168057 -0.36731943 -0.76857817 0.18839034 -0.88634831 -0.42296073 0.020162515
0.071970955 -0.36090037 -0.77152938 0.18057413 -0.90338242 -0.38896427 0.019174298
0.088264003 -0.35765839 -0.76861787 0.1496135 -0.90786964 -0.39164847 0.017604973
0.10804313 -0.35428366 -0.76501739 0.096756935 -0.90928465 -0.404771 0.019808313
0.12717107 -0.35273474 -0.76269794 0.018483993 -0.90604651 -0.42277423 0.021282747
0.15422171 -0.35318902 -0.76006711 -0.11300757 -0.88112485 -0.45918217 0.028621744
0.17125466 -0.35572216 -0.76030129 -0.20475414 -0.84965509 -0.48596498 0.033059277
0.19318743 -0.36282298 -0.7599324 -0.33434147 -0.78151512 -0.52673507 0.038561091
0.20979016 -0.36751175 -0.76635599 -0.39007545 -0.74789453 -0.53711724 0.038429692
0.22344501 -0.37264672 -0.77110016 -0.42132333 -0.71011609 -0.56411147 0.039517462
0.24135642 -0.38076648 -0.77684522 -0.42845532 -0.66148371 -0.61552036 0.039576713
-0.23880018 -0.38202667 -0.7863698 0.66979533 -0.61450642 -0.41684061 0.077356763
-0.23218039 -0.37763613 -0.78429544 0.56758076 -0.69573581 -0.44023153 0.075064726
-0.22389396 -0.37560701 -0.77965558 0.48777577 -0.73369831 -0.47303444 0.072544172
-0.21502446 -0.3722828 -0.78021777 0.39159375 -0.78859884 -0.47409514 0.065355971
-0.19437811 -0.37193045 -0.77482921 0.20104505 -0.8399002 -0.5041315 0.05383468
-0.17192429 -0.3728807 -0.78009826 0.059709579 -0.87848282 -0.47402817 0.034430608
-0.15258707 -0.37804884 -0.77673912 0.0076511558 -0.87609214 -0.48208296 0.024767311
-0.13292061 -0.38038433 -0.77796537 -0.0087929685 -0.8819406 -0.47127858 0.018673228
-0.10471527 -0.38090503 -0.77443492 0.0098999012 -0.88074321 -0.47349066 0.022362869
-0.089519203 -0.38080427 -0.77448994 0.020448552 -0.88327962 -0.46840042 0.023940522
-0.063077949 -0.3789435 -0.77624559 0.017432287 -0.89390957 -0.44790825 0.026939716
-0.051475774 -0.37937653 -0.77306783 0.024180999 -0.88878798 -0.4576802 0.03444697
-0.029768812 -0.37830579 -0.77599031 0.044299062 -0.90207678 -0.42929608 0.032367937
-0.0090646353 -0.37699586 -0.77753806 0.090529099 -0.90406585 -0.4176954 0.034759831
0.015545981 -0.37385285 -0.77954412 0.14870492 -0.90695292 -0.39411068 0.031935845
0.030751003 -0.37019914 -0.78099281 0.17574309 -0.90950477 -0.37671664 0.028765634
0.053568441 -0.36329105 -0.78076184 0.18837048 -0.91390717 -0.35956955 0.024824761
0.074592561 -0.36054057 -0.7699334 0.17755578 -0.90159613 -0.39445964 0.018354049
0.093133047 -0.35632423 -0.7685762 0.13847359 -0.91203666 -0.38602364 0.017087629
0.10951325 -0.35188967 -0.772407 0.09184017 -0.93141907 -0.3521702 0.018111823
0.12879317 -0.35035861 -0.76940954 0.017434856 -0.92589277 -0.37738392 0.020922434
0.14973432 -0.35070032 -0.76623338 -0.080630004 -0.90647858 -0.41448203 0.02656569
0.17412071 -0.35285416 -0.76888502 -0.20495814 -0.87711793 -0.43434587 0.03085761
0.19140869 -0.35639915 -0.77164334 -0.29581881 -0.84219253 -0.45078036 0.03440807
0.2046711 -0.36107495 -0.77352613 -0.34529406 -0.80536354 -0.48183149 0.035380162
0.21649019 -0.36764932 -0.77257055 -0.38525262 -0.7513594 -0.53576058 0.037388802
0.22577925 -0.37219408 -0.77418572 -0.40669098 -0.713498 -0.57054627 0.039226163
-0.23296207 -0.38014266 -0.78098989 0.5861814 -0.66801304 -0.45842114 0.074906029
-0.22979261 -0.37670937 -0.783346 0.54637355 -0.70843542 -0.44676083 0.068342999
-0.22177529 -0.37233746 -0.78652668 0.47333014 -0.76643056 -0.43421519 0.064609669
0.080197111 -0.35533875 -0.78216267 0.159326 -0.93625426 -0.31311846 0.02107662
0.093007781 -0.35409537 -0.7762354 0.13591844 -0.93188155 -0.33633751 0.017407045
0.11522245 -0.35054263 -0.77411544 0.075201631 -0.93734193 -0.34019816 0.017864507
0.13279608 -0.3487516 -0.7745381 0.0049272384 -0.93852657 -0.34517181 0.019963048
0.1500176 -0.34916621 -0.7721976 -0.074140854 -0.92239022 -0.37907711 0.023899399
0.16946538 -0.35075206 -0.77262461 -0.17112066 -0.89782113 -0.40575236 0.028412642
0.18626386 -0.3535957 -0.77481419 -0.2630367 -0.86516178 -0.42697403 0.032605547
0.19736245 -0.3567521 -0.77610594 -0.32159737 -0.83712947 -0.44248092 0.033849906
0.21265092 -0.36257246 -0.7782619 -0.36191994 -0.79348558 -0.48927969 0.035630684
0.21951641 -0.36613625 -0.7781049 -0.37428224 -0.76606399 -0.52255028 0.037392918
0.15139526 -0.34630629 -0.78530574 -0.058834624 -0.95000666 -0.30663636 0.020394534
0.16554016 -0.34781542 -0.78163004 -0.13268371 -0.92754865 -0.34935439 0.025049059
0.17949995 -0.35063955 -0.77966565 -0.21504433 -0.89617443 -0.3881073 0.027851786
0.35565683 -1.2515881 -0.74911648 -0.16000481 -0.95937103 -0.23239125 0.029012296
0.37213382 -1.2543927 -0.74846756 -0.098254591 -0.97811496 -0.18340442 0.013984499
0.38836068 -1.2566186 -0.7439906 -0.021605596 -0.98899519 -0.14636149 0.0084675895
0.403247 -1.2573427 -0.74543655 0.062635697 -0.98876524 -0.13572043 0.011586697
0.43283504 -1.255476 -0.7479794 0.28308389 -0.95016277 -0.13059202 0.029165242
0.44629344 -1.2518834 -0.74775642 0.41328886 -0.89952606 -0.14158103 0.043222949
0.46082214 -1.2461257 -0.74403799 0.53449351 -0.83064246 -0.15604426 0.043030459
0.46894088 -1.2421932 -0.74383068 0.58663958 -0.79092479 -0.17404586 0.039690349
-0.37058151 -1.252991 -0.75326443 -0.055721585 -0.92365694 -0.37914774 0.0049630166
-0.35008472 -1.2532868 -0.75111961 0.11423369 -0.9041838 -0.41158509 0.0063260528
-0.32808045 -1.2484086 -0.74946052 0.31886351 -0.83972621 -0.43952924 0.0057572946
0.2418775 -1.2239481 -0.73234469 -0.47131991 -0.70722938 -0.52695739 0.03641827
0.26176494 -1.2292457 -0.73949087 -0.39222214 -0.75789875 -0.52129775 0.031108245
0.27637643 -1.2311933 -0.74420404 -0.35406953 -0.79144317 -0.49824947 0.030496588
0.29346979 -1.2365745 -0.74495411 -0.29984856 -0.84375322 -0.44516438 0.033991951
0.31471962 -1.2408206 -0.74831939 -0.25961193 -0.88892859 -0.37736937 0.037998211
0.33112386 -1.2462475 -0.74729055 -0.22140005 -0.92298663 -0.31476614 0.040845186
0.34765059 -1.2486925 -0.75338453 -0.20350127 -0.9409408 -0.27058756 0.037448719
0.3677018 -1.2541894 -0.7464115 -0.1080088 -0.97631252 -0.18747784 0.014127244
0.387602 -1.2557915 -0.75038016 -0.031405348 -0.98575383 -0.16523637 0.008565722
0.40933883 -1.2568524 -0.75235099 0.09549249 -0.98421836 -0.14898126 0.014628632
0.43645847 -1.2535638 -0.75648898 0.32461977 -0.93244612 -0.1586387 0.030659836
0.44714782 -1.2516559 -0.7499519 0.41036901 -0.89999068 -0.14701732 0.042571709
0.46045974 -1.2457267 -0.7519626 0.53589547 -0.82654643 -0.17215413 0.04834478
0.47338426 -1.2375419 -0.75116527 0.62452734 -0.75521529 -0.19903636 0.046584837
0.21337985 -1.1947689 -0.71303046 -0.57901973 -0.65738821 -0.48226222 0.093300708
0.22886308 -1.2052387 -0.72968626 -0.56132722 -0.63824689 -0.5268327 0.053517792
0.24386485 -1.2163209 -0.73993921 -0.47168145 -0.68631828 -0.55360979 0.032381151
0.25758535 -1.223521 -0.74243045 -0.42919683 -0.72718328 -0.53571868 0.029812405
0.29358402 -1.2314842 -0.75163007 -0.32493687 -0.82533771 -0.46177232 0.034084998
0.30950257 -1.23853 -0.7500754 -0.27929786 -0.87163579 -0.40279487 0.037499975
0.42436638 -1.2557747 -0.75580168 0.21759887 -0.96411037 -0.15212463 0.025259981
0.48586634 -1.2214177 -0.75574267 0.78258634 -0.5796898 -0.22697656 0.045603186
-0.029057477 -1.1865245 -0.71138394 -0.0099713523 -0.70162153 -0.71248001 0.066415913
-0.013342979 -1.1808978 -0.71360344 -0.019324474 0.66337234 0.7480399 0.057399552
0.012774782 -1.1809696 -0.71006948 -0.090961151 0.67109001 0.73577458 0.068848729
0.22574027 -1.1919101 -0.73981887 -0.5748055 -0.61034465 -0.54504871 0.053842418
0.23675855 -1.2064129 -0.7403028 -0.52909571 -0.64835238 -0.54744577 0.048705354
0.26617908 -1.2125422 -0.75753421 -0.44601938 -0.71732605 -0.5352664 0.03120959
0.49188942 -1.2131407 -0.74875343 0.85265839 -0.47480014 -0.21803321 0.0434804
0.49725378 -1.2038472 -0.73777938 0.90406328 -0.36947951 -0.21483596 0.036332514
-0.084822685 -1.1701584 -0.71936607 0.20359842 0.51997995 0.82955927 0.029052805
-0.060613692 -1.1756151 -0.71994102 0.1192696 0.57287824 0.81091636 0.031493686
-0.045755446 -1.174621 -0.72279698 0.074146174 0.56856537 0.8192898 0.026665861
-0.031126566 -1.1728755 -0.72455275 0.033380188 0.56117392 0.82702458 0.028545002
-0.0090412628 -1.173924 -0.72056818 -0.034694605 0.60046107 0.79890102 0.048795551
0.01029359 -1.1707001 -0.71993697 -0.077640809 0.58678389 0.80601275 0.050294362
0.028168855 -1.1689897 -0.71709293 -0.12477083 0.59805036 0.79168683 0.059361465
0.043888632 -1.1653473 -0.71190739 -0.15158966 0.596039 0.7885164 0.06980411
0.22142027 -1.1791638 -0.74020952 0.60357958 0.56552505 0.5620259 0.085862555
0.22757462 -1.1865308 -0.74595124 -0.57090491 -0.5973891 -0.56319964 0.064163662
0.27534258 -1.2151023 -0.76061809 -0.42426249 -0.7394942 -0.52263719 0.03283941
0.25661421 -1.2017661 -0.75855601 0.59180868 0.61247414 0.52405906 0.11081905
0.4982672 -1.1931973 -0.74789792 0.94141978 -0.24640043 -0.23025124 0.033688121
0.49937442 -1.1875283 -0.74679542 0.95403719 -0.19064201 -0.23123281 0.031139478
-0.10325862 -1.159035 -0.72219753 0.25054872 0.42531011 0.86967617 0.026683206
-0.080605149 -1.1618201 -0.72624451 0.19160347 0.44566488 0.87445462 0.02631807
-0.064153686 -1.1620665 -0.72941965 0.14356962 0.44729134 0.88279003 0.025457565
-0.047636803 -1.1612242 -0.73211044 0.097839482 0.4428435 0.89124465 0.023552554
-0.02965934 -1.1626616 -0.73244184 0.031408962 0.46956804 0.88233739 0.025310408
-0.013699151 -1.1621358 -0.73241687 -0.01918654 0.4764404 0.87899739 0.027324857
0.0060184677 -1.1565732 -0.73309314 -0.062005993 0.4461593 0.89280295 0.027622517
0.027217153 -1.1581931 -0.72548962 -0.11601073 0.49978021 0.85834795 0.042226393
0.048550002 -1.156734 -0.71983641 -0.13316734 0.5390234 0.83169723 0.058118168
0.067784727 -1.1521116 -0.71274215 -0.11856367 0.55885488 0.82074594 0.079823241
0.092105843 -1.1483988 -0.71251559 -0.050693944 0.57227951 0.81849027 0.079851411
0.11117072 -1.1462491 -0.71413106 0.062511981 0.58040231 0.81192696 0.081212617
0.13972653 -1.1477332 -0.7237277 0.24157684 0.59573668 0.76598859 0.080532148
0.16407511 -1.1532494 -0.73072827 0.35538569 0.5990231 0.71754605 0.088845186
0.18418206 -1.1558918 -0.73746908 0.44767365 0.5660764 0.69220358 0.08834441
0.20111166 -1.1627628 -0.73835695 0.51786298 0.57021415 0.6377098 0.091102168
0.21402431 -1.1634917 -0.74446201 0.56376338 0.54161274 0.62355953 0.10696687
0.2252195 -1.1702083 -0.75201273 0.5866307 0.54996812 0.59447408 0.09970735
0.2562919 -1.194733 -0.76648217 -0.5629409 -0.62602109 -0.53962499 0.074670836
0.26284149 -1.1922165 -0.72812456 0.80628794 0.50246632 -0.31213355 0.21310358
0.49652916 -1.1742175 -0.76986402 0.9433862 -0.026668858 -0.33062255 0.036482595
0.49989453 -1.1725577 -0.75535142 0.95959693 -0.025627516 -0.28020871 0.036640398
0.50129861 -1.1645652 -0.74726182 0.96181411 0.030098081 -0.27204368 0.031907417
-0.11683112 -1.1462677 -0.72491074 0.26662627 0.35000259 0.89800256 0.030069347
-0.10253588 -1.1436379 -0.73050207 0.24763998 0.31709549 0.91549158 0.030602315
-0.082263395 -1.1464291 -0.73422205 0.20132305 0.33358535 0.92097223 0.031406637
-0.066047363 -1.1434066 -0.73921889 0.16279884 0.31786412 0.93405509 0.032733429
-0.044706121 -1.1451759 -0.74249321 0.095900148 0.33884406 0.93594223 0.032147136
-0.025298594 -1.1447209 -0.74398476 0.028189493 0.34252056 0.93908733 0.027452204
-0.0075967242 -1.1432062 -0.74420649 -0.032408595 0.34835231 0.93680328 0.028059555
0.011170788 -1.1423444 -0.7416445 -0.085318513 0.34493014 0.93474269 0.02483068
0.029440861 -1.1409451 -0.73755497 -0.10546417 0.35210007 0.93000156 0.023815356
0.052128743 -1.1391705 -0.73234057 -0.11920618 0.37959695 0.91743994 0.032732524
0.06725803 -1.1411815 -0.72676963 -0.11142764 0.42692462 0.89739579 0.044571031
0.093080908 -1.1371288 -0.72670817 -0.0043444484 0.47150451 0.88185298 0.068111785
0.11313426 -1.1377285 -0.72738481 0.11644803 0.49927935 0.85858023 0.074155226
0.13589211 -1.1393384 -0.73410308 0.25953764 0.48847443 0.83308637 0.06962765
0.15757048 -1.1450603 -0.73853749 0.34763989 0.49037626 0.79917312 0.066761136
0.17245969 -1.1457947 -0.745821 0.41970205 0.4533971 0.78630865 0.068816423
0.18934087 -1.1431478 -0.75614101 0.47393468 0.38686034 0.79102778 0.084084503
0.49835631 -1.1474723 -0.75501996 0.92514855 0.27564684 -0.26099607 0.07284943
0.50029445 -1.1524345 -0.75259012 0.93408459 0.22207601 -0.27958572 0.067091554
0.50142676 -1.1480361 -0.74377418 0.92883176 0.26661414 -0.2572712 0.070857629
-0.27951637 -1.128145 -0.73602533 -0.57243222 0.30853903 0.75968748 0.024985135
-0.12229033 -1.1357722 -0.72717243 0.27012533 0.28060392 0.92102861 0.029395504
-0.10723118 -1.1254714 -0.73396885 0.25866821 0.18674494 0.94774318 0.029600827
-0.08519274 -1.1295995 -0.7390691 0.21777669 0.21517086 0.95198464 0.02913934
-0.069989875 -1.1295671 -0.7422722 0.18095301 0.21472912 0.95976424 0.026974356
-0.05172234 -1.1292229 -0.74560219 0.1304975 0.20899475 0.96917057 0.028751699
-0.027198784 -1.1291746 -0.74830478 0.045930415 0.22996795 0.97211373 0.025749918
-0.0089363689 -1.1315902 -0.74787563 -0.016694877 0.25284174 0.9673636 0.026200315
0.0096347826 -1.1309419 -0.74653196 -0.072209984 0.27066931 0.95996034 0.02342361
0.031098641 -1.1295886 -0.74248582 -0.10098957 0.2839022 0.95352012 0.025757741
0.048146389 -1.1303314 -0.73855251 -0.10811906 0.32259172 0.94034296 0.031877909
0.069815204 -1.130545 -0.73380256 -0.076395676 0.36603114 0.92746156 0.049371872
0.089749046 -1.1267793 -0.73329407 0.0086194547 0.37671679 0.92628837 0.060261201
0.11132388 -1.1248152 -0.73564893 0.13172533 0.37525186 0.9175154 0.065409057
0.12921561 -1.1273466 -0.73880231 0.22817579 0.37556282 0.89826965 0.065109454
0.15042093 -1.1359686 -0.74308789 0.31557235 0.40972686 0.85588431 0.064184986
0.16765566 -1.1380419 -0.75041991 0.40723193 0.38346651 0.82892436 0.065240711
0.18454544 -1.1265762 -0.76158392 0.43534556 0.22843914 0.87079835 0.057830956
0.49474335 -1.1302512 -0.74864364 0.88048017 0.39169398 -0.26707759 0.070879474
0.49754584 -1.1339618 -0.74300033 0.89037526 0.36139399 -0.27681452 0.069659323
-0.28837666 -1.1072322 -0.75061822 -0.59483802 0.27198243 0.75643456 0.013993046
-0.28078777 -1.1112114 -0.74205506 -0.55530661 0.27370951 0.78531379 0.021544132
-0.26475081 -1.1055388 -0.73152637 -0.5440107 0.24386819 0.80285782 0.025707217
-0.10614642 -1.1118221 -0.7342853 0.25421107 0.059305739 0.96532875 0.019834444
-0.087040983 -1.1122341 -0.73934126 0.22323446 0.060126938 0.97290862 0.021102777
-0.072199613 -1.1121104 -0.74239928 0.19465448 0.062848732 0.97885633 0.021196188
-0.048704952 -1.109313 -0.74647081 0.13796112 0.056129385 0.98884588 0.017018739
-0.027967524 -1.1097723 -0.74929422 0.068470344 0.079631962 0.99447 0.018112469
-0.0091116326 -1.1112944 -0.75009799 0.0036164396 0.11423416 0.99344724 0.019408157
0.010586459 -1.1120565 -0.74916381 -0.052726094 0.13772282 0.98906642 0.018802011
0.029473796 -1.1114197 -0.74604344 -0.07905174 0.15411748 0.9848851 0.019235168
0.049212083 -1.1103894 -0.74271345 -0.075268038 0.17743395 0.98125017 0.02105161
0.068172812 -1.110395 -0.74057305 -0.041893788 0.2095927 0.97689086 0.031100519
0.087809712 -1.1090623 -0.73933893 0.02558092 0.23428337 0.97183174 0.044237487
0.10912351 -1.1096458 -0.74069023 0.12861621 0.2536785 0.9586997 0.051178433
0.13049172 -1.108928 -0.74603474 0.22169483 0.23190115 0.9471395 0.040609114
0.14638047 -1.1108907 -0.7509129 0.27910578 0.21145514 0.9366892 0.038280897
0.16325986 -1.1125013 -0.75622725 0.34752119 0.18083914 0.92006862 0.036759879
0.18315963 -1.1076055 -0.76330394 0.38133171 0.091480084 0.91990083 0.040860578
0.49068671 -1.1226035 -0.75078171 0.84068567 0.45758551 -0.28959131 0.062877789
